# .PCD v0.7 - Point Cloud Data file format
VERSION 0.7
FIELDS x y z
SIZE 4 4 4
TYPE F F F
COUNT 1 1 1
WIDTH 1491
HEIGHT 1
VIEWPOINT 0 0 0 1 0 0 0
POINTS 1491
DATA ascii
20.533062 1.40276 -1.4769382
20.436998 1.4984063 -1.4887378
-6.5452328 1.5008948 -1.4515409
-6.1525583 1.5680997 -1.454814
17.445522 1.556746 -1.4644303
17.567455 1.5773671 -1.4580005
17.602034 1.5771408 -1.4929063
-4.5958395 1.6700654 -1.4649179
17.932287 1.6949066 -1.4959573
-4.6916709 1.744251 -1.4511572
-5.8740559 1.7786095 -1.487281
-4.7436256 1.7796026 -1.4526554
18.36545 1.8599424 -1.4671023
18.482121 1.9508991 -1.4661617
19.885412 1.9996533 -1.4801104
-5.1979656 2.086087 -1.4815724
-5.1155372 2.0553916 -1.4898714
19.022276 2.1321487 -1.4897535
19.096947 2.1642849 -1.456658
-20.662779 0.63639158 -1.4456869
-20.601049 0.74123234 -1.4057202
-19.772039 0.79475951 -1.4096744
-13.159569 0.78914702 -1.428368
-12.932679 0.76659006 -1.4299639
-20.89551 0.81589341 -1.4231052
-20.112768 0.80432475 -1.4001017
-19.692638 0.80401903 -1.4409361
-19.492741 0.8246274 -1.4012036
-18.34079 0.84233665 -1.4082987
-12.423399 0.80387068 -1.4166797
-12.275414 0.82637513 -1.4075584
0.043907061 0.83958954 -1.4347533
0.06142018 0.83789748 -1.4460428
0.63661873 0.84708059 -1.4462084
-20.508551 0.85172838 -1.4489329
-19.100389 0.87778062 -1.430091
-18.915394 0.86154366 -1.4143794
-18.721737 0.8543964 -1.4026386
-18.514713 0.85915422 -1.4251437
-18.039122 0.85025072 -1.4382532
-17.431108 0.87333584 -1.4336555
-17.280376 0.86485434 -1.443499
-16.50626 0.89719611 -1.4000205
-12.067394 0.8576721 -1.4246242
-11.979362 0.87220764 -1.420473
-11.809762 0.89990455 -1.4188319
-8.8982782 0.8755945 -1.4425771
13.507221 0.88193816 -1.4050441
-20.820625 0.94433874 -1.4462253
-16.343048 0.90890145 -1.4144037
-16.064728 0.94039667 -1.4346696
-14.582729 0.94005781 -1.4074268
-14.457897 0.92308795 -1.4174386
-14.406345 0.92316341 -1.4213459
-9.0499105 0.91707957 -1.4054477
-7.6353025 0.90979791 -1.4400356
-0.61614311 0.93390405 -1.4411364
-0.48701978 0.916269 -1.4487463
2.1197791 0.93682885 -1.4073589
2.3905129 0.93560886 -1.4497809
4.9101734 0.9327355 -1.4148746
5.2330599 0.90999007 -1.4153873
5.7743716 0.91800141 -1.4404584
5.8796597 0.91961706 -1.4269619
12.098262 0.93106604 -1.4205012
12.422424 0.90829992 -1.4454371
12.827782 0.91677523 -1.4487004
13.209171 0.90897799 -1.4448719
21.098866 0.90732169 -1.4055021
-20.803963 0.97333527 -1.4023392
-15.785566 0.97066349 -1.4174945
-15.543029 0.9916358 -1.4377046
-15.44277 0.99347544 -1.4208529
-14.856815 0.98296243 -1.4076939
-10.84328 0.97182083 -1.4083927
-10.618345 0.99512732 -1.4268355
-9.4794321 0.99040383 -1.4493692
-9.3739176 0.97526431 -1.4428449
-7.5380788 0.95812017 -1.4467523
-2.6526895 0.98518503 -1.4132802
-1.4707463 0.99981999 -1.4091469
-1.1693408 0.99310929 -1.412318
-1.024106 0.98537016 -1.4180565
-0.9376744 0.97451329 -1.4362111
3.852572 0.99519932 -1.4494669
3.9559691 0.99021459 -1.4142988
4.2275047 0.96309292 -1.4005883
4.766654 0.95505512 -1.4030309
13.84557 0.95180029 -1.4079094
-15.207603 1.0055126 -1.4424407
-15.123475 1.0008714 -1.4412045
-10.487826 1.0037973 -1.4044594
-10.1658 1.046537 -1.418226
-9.7112293 1.0373628 -1.4294113
-2.0824413 1.0044342 -1.4324187
-1.9245701 1.0090368 -1.4268827
-1.6558273 1.004589 -1.4360743
10.555134 1.0113213 -1.4278557
20.877781 1.001101 -1.4402547
-10.033394 1.0529952 -1.4080503
-3.2279689 1.0730909 -1.4342901
6.7148933 1.0572636 -1.413801
7.4274931 1.0739615 -1.4068081
9.0639391 1.0931637 -1.4467616
9.6259003 1.0863203 -1.4269719
9.9845438 1.0664531 -1.4010624
10.087761 1.0588975 -1.4274967
20.826677 1.0568058 -1.4002231
9.3830729 1.1044612 -1.4176875
15.245155 1.1286035 -1.4375279
16.088388 1.1309949 -1.4335132
-6.8411808 1.185688 -1.4473249
14.555779 1.1518793 -1.4293537
16.353699 1.1825557 -1.4020449
16.41935 1.2102666 -1.4495053
16.557291 1.2635392 -1.4293485
20.604889 1.3221886 -1.407066
-6.5060167 1.3603814 -1.4081433
16.881401 1.3582506 -1.4342911
17.045065 1.4109403 -1.4450047
-6.348876 1.4533274 -1.4432421
-4.3443346 1.4833415 -1.4359123
-4.2942033 1.4684739 -1.4007553
-4.374423 1.5147828 -1.4099181
20.434353 1.5140368 -1.4343021
17.531122 1.5709033 -1.4414062
20.355608 1.5932208 -1.4066918
17.699656 1.634154 -1.4106733
-5.9802351 1.6998439 -1.4022756
-5.9817567 1.7030221 -1.4425728
-4.6188011 1.7055415 -1.4163986
18.018009 1.743443 -1.4046097
-5.8941593 1.7581488 -1.4074365
-5.6939268 1.8929124 -1.4312017
18.518692 1.9448775 -1.4141723
-5.5656986 1.9743891 -1.4027927
-5.0519843 2.0415876 -1.4471506
-4.9972658 2.024868 -1.4043261
-5.3769379 2.0796556 -1.4458284
-5.0668192 2.0537505 -1.4298701
-5.2562637 2.109437 -1.4362389
18.951199 2.1159203 -1.409703
19.079943 2.1624522 -1.4289503
19.611477 2.1827285 -1.4321681
19.20686 2.2065623 -1.4115573
19.488934 2.2261136 -1.445309
-20.826553 0.58916819 -1.3555443
-20.952633 0.69709563 -1.3788633
-20.626881 0.70023054 -1.3769472
-19.797104 0.79229736 -1.3963983
-12.829235 0.76918274 -1.3504715
-12.792707 0.77024978 -1.365687
-20.455816 0.84975845 -1.362627
-19.572916 0.81210613 -1.3969817
-18.80949 0.83359903 -1.3523183
-18.778217 0.84549093 -1.3820343
-18.57107 0.84513569 -1.3735429
-18.210732 0.83898318 -1.3793244
-8.5660944 0.81815571 -1.3792701
-8.3817644 0.80104703 -1.398667
0.13286766 0.83722937 -1.3569577
0.58232498 0.84885895 -1.3738797
-21.44183 0.88913655 -1.3732426
-21.325567 0.88594234 -1.3820751
-21.192213 0.87729192 -1.3973582
-20.801489 0.87522042 -1.3605412
-20.678452 0.87322837 -1.3763702
-19.212509 0.85921633 -1.3805645
-19.17275 0.86780638 -1.3870819
-17.720713 0.85281163 -1.3530033
-17.455898 0.88179946 -1.3966808
-17.430101 0.88383186 -1.3564609
-17.15983 0.8660807 -1.3718395
-16.813911 0.87726969 -1.3971291
-16.794067 0.87949121 -1.3826432
1.1816232 0.8777464 -1.3544072
1.2477071 0.88540375 -1.396678
1.3566698 0.88792622 -1.3671334
1.5084107 0.89527863 -1.3549627
1.5843397 0.89957869 -1.3532573
12.466465 0.89394456 -1.3554184
13.356854 0.89235651 -1.3584644
13.481647 0.89109719 -1.3982811
13.665545 0.89271218 -1.36324
21.306068 0.87235582 -1.3572603
21.380899 0.86485571 -1.3791633
-16.054024 0.93331844 -1.3573407
-15.971608 0.94391507 -1.3552055
-14.636147 0.94729686 -1.3984236
-14.494749 0.92782092 -1.3568139
-14.178783 0.92810023 -1.3884692
-13.978256 0.93039167 -1.3733141
-11.794923 0.90450567 -1.3736427
-11.433487 0.92855942 -1.357484
-11.140257 0.9286285 -1.3793681
-9.173172 0.92300308 -1.3851129
-9.1184568 0.9397518 -1.3556774
-9.0983105 0.93462718 -1.361866
-7.4899297 0.93892837 -1.3511732
1.596925 0.90195954 -1.3656077
1.6329072 0.9033159 -1.3593392
1.9247428 0.9320792 -1.3524867
2.0883291 0.93741828 -1.3953934
2.101949 0.93935621 -1.3579851
2.2335291 0.93770218 -1.3915755
2.5865097 0.91568553 -1.3973535
2.7369876 0.91107166 -1.3854997
3.0217595 0.94900405 -1.3732452
4.9216614 0.93250287 -1.366693
5.2688394 0.91000831 -1.3551761
5.7475462 0.91665244 -1.3737499
11.914648 0.94474268 -1.3722721
11.987634 0.94736373 -1.3847871
12.269953 0.90783316 -1.3880501
12.633019 0.90220535 -1.3521965
13.071526 0.90753454 -1.3896699
-15.784381 0.96923226 -1.3878025
-15.723907 0.96703351 -1.3609872
-15.069595 0.99781263 -1.3929031
-14.665475 0.95108384 -1.3544302
-9.4246635 0.99496382 -1.3850348
-9.2904215 0.97171855 -1.3674134
-7.3663716 0.98005438 -1.3847851
-2.7471428 0.99321508 -1.3923939
-2.6191814 0.98960567 -1.3732512
-2.5528541 0.99230474 -1.3576664
-1.3763932 0.99843085 -1.3830903
4.4755688 0.96900183 -1.3525724
4.5034771 0.96481568 -1.3567852
4.7491574 0.95961773 -1.3772718
6.295917 0.98337448 -1.3834704
11.540884 0.99316335 -1.3810098
13.892181 0.95817739 -1.3876724
13.977688 0.98150766 -1.3582497
-15.121855 1.0007037 -1.3980733
-10.258443 1.0448476 -1.360839
-9.7262077 1.0083486 -1.3676659
-1.8463563 1.009809 -1.3515483
6.528192 1.0330945 -1.3859235
10.230677 1.0451984 -1.3508416
10.25559 1.0407577 -1.3882668
11.240213 1.0409731 -1.3552202
11.296871 1.0397824 -1.3540912
11.371402 1.0348607 -1.3819771
14.062407 1.0167329 -1.3786888
14.123241 1.03313 -1.3535283
-9.9123898 1.057794 -1.3777535
-7.0324254 1.0837753 -1.3786496
6.9688711 1.0848393 -1.3615985
7.8529205 1.0907619 -1.3651481
9.837245 1.0752877 -1.384413
9.9250135 1.0711496 -1.369257
10.065977 1.0633411 -1.380897
14.314064 1.0844769 -1.3947608
15.593978 1.0824884 -1.3526483
-3.4153504 1.1400055 -1.3615509
8.1001177 1.1039984 -1.3891395
8.8817091 1.1019926 -1.3981357
9.2033167 1.1103702 -1.3927261
9.5237103 1.1056294 -1.3690304
14.54244 1.1370938 -1.3732553
15.268143 1.1197299 -1.3873475
15.947144 1.1022179 -1.3611904
15.99066 1.1128316 -1.3848462
16.131508 1.1254561 -1.3659286
-6.7632093 1.2155141 -1.3829873
-6.7488256 1.2235725 -1.3855956
-3.7012658 1.2091069 -1.3843458
-3.8370757 1.2582966 -1.3602319
16.730947 1.3227608 -1.3667743
16.832016 1.3595937 -1.3604729
16.856731 1.366183 -1.3685466
-6.6077523 1.4313327 -1.3618932
-6.4132271 1.4346845 -1.3622435
-4.2160034 1.4338206 -1.3712645
-6.606863 1.4923532 -1.3977928
20.379433 1.5711631 -1.3673482
17.700819 1.6381043 -1.3661256
-4.5686765 1.6781019 -1.3973846
17.920942 1.720922 -1.361099
-4.7292385 1.7967063 -1.3660101
18.100618 1.782722 -1.3510065
-5.8239536 1.8037491 -1.3973165
-4.7727041 1.8426788 -1.3654721
-4.7908306 1.8534133 -1.3793042
-5.6186094 1.9368949 -1.3651525
-5.4038076 2.0603094 -1.3794427
-5.3732891 2.0737998 -1.3745528
-5.1225891 2.0935006 -1.3772588
-5.1724062 2.106705 -1.3891058
19.112041 2.1806376 -1.370011
19.416092 2.2402549 -1.3820548
19.538532 2.2218211 -1.3965964
-20.659582 0.69208252 -1.3319776
-20.688044 0.72317338 -1.3095522
-12.803644 0.76955664 -1.3250155
-12.758895 0.77044106 -1.3027925
-12.58998 0.78719687 -1.3075817
-20.161545 0.80056661 -1.3151412
-19.190617 0.84485453 -1.3275514
-18.997597 0.83216083 -1.3331025
-18.736509 0.82299381 -1.3026671
-17.966646 0.83424538 -1.323016
-8.7454138 0.84963262 -1.3417265
-0.054415356 0.84444642 -1.3189992
0.31258199 0.83178443 -1.3337759
-21.526011 0.89721227 -1.305313
-21.1884 0.88503855 -1.316761
-17.727455 0.8515203 -1.3290443
-17.619663 0.86400199 -1.3384356
-17.310139 0.87688339 -1.3311204
-17.277309 0.87441748 -1.3442633
-17.192118 0.86929476 -1.3274503
-17.063612 0.86823761 -1.3496106
-13.543168 0.8653546 -1.315081
-11.851175 0.8978281 -1.3223016
-8.7457609 0.85119069 -1.3293948
-0.31509814 0.88141525 -1.3122661
0.63499123 0.85507923 -1.3375866
1.0801573 0.88139606 -1.3069965
1.1785963 0.88195926 -1.3147186
1.2690829 0.88394988 -1.3080806
12.427102 0.89892542 -1.3000847
13.577914 0.88032901 -1.3493106
21.376308 0.86114299 -1.3023582
21.46409 0.85093492 -1.3473734
-16.17724 0.91680276 -1.3238451
-16.086498 0.92328793 -1.3223412
-14.551485 0.93533075 -1.309865
-14.538392 0.93369728 -1.3414934
-14.070619 0.93059087 -1.3171687
-13.766766 0.9170146 -1.333203
-11.710348 0.91676569 -1.3139108
-11.626032 0.92426705 -1.3320416
-11.435162 0.92630231 -1.3224772
-11.322945 0.92514801 -1.3367702
-11.275842 0.92375088 -1.3301179
-11.089217 0.92978227 -1.3426638
-7.6277828 0.90044284 -1.3234415
-7.4546623 0.94855011 -1.3421814
1.6681693 0.90461183 -1.3233873
1.7698007 0.9191041 -1.3178767
1.8331987 0.92178243 -1.3444462
2.4713187 0.92646694 -1.3076407
5.0730224 0.9158752 -1.3139093
5.1741991 0.912588 -1.3102198
5.5732522 0.91224509 -1.3144666
5.7635236 0.91616142 -1.3166077
5.8444357 0.91752434 -1.3153114
5.9451752 0.91706228 -1.3177173
6.0917573 0.92750871 -1.3475463
12.899998 0.9053129 -1.3095311
13.782454 0.92676562 -1.3107839
20.985373 0.92746317 -1.3205907
21.092894 0.91178286 -1.3160142
-20.945305 0.99663168 -1.3221319
-15.685724 0.96560478 -1.3262947
-15.126408 0.99014843 -1.3217183
-14.915899 0.98617816 -1.3239434
-14.744088 0.9616189 -1.3164606
-10.983257 0.95693964 -1.3461744
-9.2647791 0.97685224 -1.3113766
-9.149415 0.99822593 -1.30091
-7.2957454 0.99741733 -1.3306878
3.2712798 0.9695577 -1.3442256
3.4275699 0.99149138 -1.3156291
6.1863031 0.95469189 -1.3465031
6.2063055 0.96167421 -1.3394067
11.678265 0.98996961 -1.3096597
-9.6865873 1.0442234 -1.3043754
-2.3411646 1.0033009 -1.3042221
-1.8818996 1.0102981 -1.3443114
-1.7595249 1.0098079 -1.3102865
3.544426 1.002032 -1.3144033
3.7421939 1.0254478 -1.3121028
3.7999144 1.0130969 -1.3282557
3.8055835 1.0129591 -1.3012993
10.242941 1.0499704 -1.3226966
11.397689 1.0369595 -1.3090774
-9.9327202 1.0569401 -1.3126833
-3.2506821 1.0973853 -1.3266529
7.0525675 1.0840764 -1.3297079
7.7901077 1.0905242 -1.3086497
9.7453785 1.0990597 -1.3408189
10.014777 1.0712495 -1.3341204
10.127623 1.0626192 -1.3134148
15.64629 1.0848713 -1.3019651
8.0408344 1.1076772 -1.3219048
8.5044203 1.1345289 -1.3004204
8.6672878 1.1275125 -1.3043039
8.9761124 1.1145623 -1.3456838
9.1055632 1.127479 -1.3132662
9.2387333 1.1240683 -1.3413441
9.6896315 1.1074823 -1.3014348
-3.5465951 1.1862515 -1.3172741
20.769039 1.153281 -1.3447466
-6.7365818 1.2189012 -1.32926
-6.5698414 1.3038265 -1.3104041
-4.035758 1.3526436 -1.3274094
20.514275 1.4227889 -1.3217682
17.248878 1.5055836 -1.3251052
-4.3869276 1.5626409 -1.3370869
20.332649 1.6189392 -1.3191893
20.274588 1.6757128 -1.3302653
17.84259 1.7090199 -1.3218459
-5.8683591 1.7601315 -1.3268487
-4.644732 1.7543643 -1.3261909
-5.749217 1.8441827 -1.3424234
-5.6951313 1.8720946 -1.306756
18.293224 1.8577458 -1.3496284
18.430964 1.9210385 -1.3469393
19.732723 2.098778 -1.3467652
19.793499 2.0533609 -1.3156879
-5.2873878 2.1115918 -1.3360863
-5.108603 2.1086774 -1.3125309
19.544804 2.2220607 -1.3203135
-20.851507 0.64277482 -1.2798277
-21.023884 0.69884551 -1.2827584
-20.778885 0.66772783 -1.2834299
-20.717464 0.70078278 -1.2993875
-19.946997 0.77224684 -1.2773066
-19.748173 0.78487569 -1.2856869
-19.578701 0.79186481 -1.2659554
-12.830329 0.77155709 -1.2717468
-19.341721 0.82649624 -1.2859762
-18.978394 0.80811393 -1.2669349
-18.919662 0.80654633 -1.2660208
-18.845123 0.81722689 -1.2998837
-17.799183 0.84450161 -1.2645741
-12.318781 0.82877791 -1.2861903
-8.6669531 0.84929597 -1.2590377
-8.5805855 0.82932174 -1.2930789
-8.1743889 0.81127173 -1.2844902
-7.87747 0.84210593 -1.2996604
0.034017704 0.84234202 -1.2657346
0.17077395 0.8362546 -1.2627282
0.40975571 0.82753879 -1.2957416
0.59117532 0.8495633 -1.2961953
-20.764866 0.89435965 -1.2689021
-20.567585 0.86788678 -1.2906634
-17.102098 0.87367785 -1.2788699
-16.816917 0.88757634 -1.2625594
-8.6497345 0.88724005 -1.2613096
-0.28643882 0.87604356 -1.2968035
1.1958804 0.88665634 -1.2731912
1.2604116 0.88765776 -1.2740374
12.384601 0.89402688 -1.2957879
12.447378 0.88904214 -1.2552177
12.522203 0.88487738 -1.2822822
12.580462 0.88048947 -1.2655071
13.152734 0.87809008 -1.2597357
13.201279 0.87479162 -1.2522707
13.751408 0.88928998 -1.2779551
-16.006594 0.92886829 -1.2858374
-14.343977 0.92473328 -1.2518258
-13.906999 0.9342618 -1.2762544
-13.753122 0.91103286 -1.2966621
-11.670067 0.91430998 -1.279459
2.332628 0.94140208 -1.2502004
2.6349394 0.91591018 -1.267894
3.0023961 0.94276226 -1.2507687
5.6475801 0.9129861 -1.2557869
5.6640806 0.91420215 -1.2969247
5.7368646 0.91522187 -1.280327
5.817842 0.91635782 -1.2619601
5.8669901 0.91685879 -1.2692828
6.0505762 0.92381716 -1.2675472
12.680185 0.90057689 -1.2879868
21.044165 0.9243381 -1.2551947
21.059868 0.92339885 -1.2544013
21.103586 0.90629125 -1.2579992
-15.447744 0.9744103 -1.2822721
-9.302618 0.99234045 -1.2676026
-9.1774807 0.96771908 -1.2631087
-9.1226206 0.9521066 -1.2845516
-1.2263899 0.99339968 -1.2791488
3.1990519 0.95911723 -1.2649603
4.1571312 0.98080403 -1.2957177
4.3133874 0.99125576 -1.2712986
6.2461386 0.98071426 -1.28573
6.3146114 0.99960548 -1.2929221
11.811275 0.96785593 -1.2754042
14.064763 0.996674 -1.2909436
-20.892187 1.023252 -1.267339
-20.809803 1.0343674 -1.2767396
-9.4288416 1.0038221 -1.2731724
-7.1781025 1.0206113 -1.2823291
-1.8948787 1.0116432 -1.2840893
3.6387336 1.0180326 -1.2517334
6.3474555 1.0109298 -1.2714925
6.436018 1.0268768 -1.2653487
-7.0262403 1.0758421 -1.2956805
-3.2083223 1.0951254 -1.2686324
6.6619987 1.0602008 -1.2875264
7.1709199 1.0922446 -1.2842278
7.4293342 1.0966469 -1.2990928
7.503973 1.0962543 -1.2721057
9.9808922 1.0829774 -1.2778435
10.074666 1.0710846 -1.2896544
15.668496 1.082866 -1.2765683
7.9636817 1.1112374 -1.2580514
8.5682583 1.1464266 -1.2537903
9.0207109 1.1328926 -1.2785174
9.4800138 1.1241375 -1.2552803
9.6148262 1.1115828 -1.2929648
14.984751 1.1496516 -1.2919031
16.050056 1.1098039 -1.2508303
16.228088 1.1590811 -1.2637999
16.314371 1.1824176 -1.2773819
20.744699 1.1883343 -1.2588433
-6.6733356 1.2389765 -1.2627435
16.372059 1.2027131 -1.2921917
16.518724 1.2560656 -1.2962651
-6.496614 1.3374399 -1.2618978
-3.9309125 1.3216704 -1.2954959
20.539242 1.3944914 -1.2501767
-6.2979813 1.4534993 -1.2827049
17.185156 1.4958789 -1.2757683
17.216801 1.5027442 -1.2905715
20.423836 1.5249716 -1.2846007
-6.1123714 1.5614755 -1.2536739
-4.3772883 1.5944427 -1.2610465
17.443262 1.5630809 -1.2548509
-6.0036316 1.6492547 -1.2848955
17.736622 1.6630249 -1.2866383
-5.8034983 1.7896075 -1.2542448
18.020144 1.782958 -1.2656703
20.120564 1.7855904 -1.2706406
19.994591 1.8853464 -1.2833021
-4.9552522 2.0363007 -1.2967232
18.800236 2.0801847 -1.2901767
19.333624 2.2446537 -1.2573533
19.410782 2.2385633 -1.2535554
-21.050636 0.74523264 -1.2224402
-20.78953 0.78433496 -1.2403713
-20.011772 0.77170354 -1.213033
-19.759216 0.78232449 -1.2457483
-18.995665 0.79259038 -1.205863
-13.10959 0.79713392 -1.2183443
-12.964489 0.78251415 -1.2311519
-12.571468 0.79390126 -1.2118139
-8.3305912 0.76387042 -1.2227265
-8.1715021 0.78216851 -1.2222779
-20.37616 0.82093537 -1.2059789
-18.343134 0.81893325 -1.2352641
-18.143057 0.8310492 -1.2137156
-13.36014 0.83762139 -1.2070855
-13.213787 0.81109512 -1.2007463
-13.164935 0.80201358 -1.2018182
-12.378016 0.82252556 -1.2081618
-8.6585484 0.84793442 -1.2125964
-8.2766933 0.81489295 -1.2158592
-8.1086903 0.80198938 -1.2038677
-7.8375287 0.83768696 -1.2050698
-21.04315 0.87859678 -1.2458184
-20.978859 0.8786447 -1.2444189
-16.970808 0.8829515 -1.2330608
-16.894802 0.88764918 -1.2134629
-8.7988329 0.85891593 -1.2436156
-0.48363119 0.89682019 -1.2415711
1.0037719 0.89372015 -1.2091428
1.0569655 0.89005286 -1.2362044
12.382406 0.87781012 -1.2058642
13.226344 0.85969871 -1.2011234
13.472795 0.86746275 -1.2396175
13.815083 0.89287639 -1.2142375
21.168915 0.89456749 -1.2315269
-16.081535 0.92222929 -1.2164695
-16.015043 0.92529523 -1.223156
-15.80653 0.94389945 -1.2155566
-14.011015 0.93184042 -1.2005615
-13.973486 0.93270063 -1.2430291
-13.75062 0.91171598 -1.2361004
-13.698766 0.90170461 -1.2187778
-11.550585 0.91315794 -1.2210424
-11.31038 0.91828036 -1.2351894
-11.073044 0.93553787 -1.2272134
-0.63234019 0.91223979 -1.2286175
1.7089045 0.92565656 -1.2285749
1.7881304 0.93950468 -1.2096761
1.9618512 0.9450925 -1.2450851
2.0267954 0.94509482 -1.2448196
2.1970439 0.94588637 -1.2282627
2.6704893 0.91551238 -1.244929
2.7930388 0.91678071 -1.2152519
2.8223257 0.92096406 -1.2379853
4.9818373 0.92879415 -1.2091153
5.1889772 0.91676831 -1.2283115
5.2070761 0.91603154 -1.241632
5.5658073 0.91010779 -1.2415168
5.869483 0.91472423 -1.2316911
-15.068948 0.986956 -1.2260277
-10.955819 0.96482158 -1.2166663
-10.728786 0.99839616 -1.2175417
-9.1684837 0.97345173 -1.2095641
-9.076643 0.95058429 -1.2229667
-1.2746059 0.98777682 -1.2072999
3.1514254 0.9546169 -1.2277265
3.494694 0.99993169 -1.2405393
6.2230268 0.98336291 -1.2030231
14.027603 0.96279919 -1.215308
-2.3538482 1.0070405 -1.2382565
-2.3280189 1.0103009 -1.201566
-2.1295156 1.0150018 -1.2299117
3.6623788 1.0269787 -1.2315354
3.9741197 1.0167315 -1.2358748
10.497442 1.0496256 -1.2245798
10.577666 1.0422479 -1.2257075
11.309021 1.0416203 -1.2420391
11.386038 1.0392827 -1.2325195
14.22134 1.0367987 -1.2279769
20.902761 1.0145195 -1.2105891
-10.227504 1.0585362 -1.2064111
-10.158537 1.0653335 -1.200967
-9.9850407 1.0678113 -1.2455556
-7.0536609 1.0576413 -1.249424
7.6973023 1.0930365 -1.2062799
10.320014 1.0620695 -1.2140012
10.449671 1.0540709 -1.2096673
10.867377 1.0503364 -1.2104228
10.905014 1.0518217 -1.2332133
14.522444 1.098593 -1.2055007
15.333599 1.0892667 -1.2061602
-6.9171944 1.1122245 -1.2003317
-3.3127329 1.1438789 -1.2136972
8.3887873 1.1457094 -1.2421449
8.6522503 1.1491988 -1.2369261
9.2293148 1.1439635 -1.2072237
9.3141155 1.1352557 -1.2249918
9.4052572 1.129389 -1.2197646
9.89361 1.1014465 -1.2397853
14.598982 1.1196102 -1.2158312
14.664186 1.1309719 -1.2400408
14.97907 1.1411725 -1.221898
-3.4724231 1.1861877 -1.2242506
16.190371 1.1524136 -1.2344402
16.35177 1.2016934 -1.2292477
16.454834 1.2381424 -1.2260485
16.68924 1.3300076 -1.2086077
16.788353 1.3675207 -1.2345845
-4.0580378 1.4096255 -1.2180617
17.209404 1.5173298 -1.2073802
-4.3306379 1.5815418 -1.2090399
17.362545 1.5502596 -1.2217295
17.847406 1.7238947 -1.2227373
17.997581 1.7898357 -1.2233907
18.461912 1.9597275 -1.241972
19.788063 2.0442286 -1.2402489
-5.0116539 2.079793 -1.2373575
19.51759 2.2228656 -1.2214254
-19.82728 0.7675581 -1.1861712
-19.098038 0.79888654 -1.153977
-18.706444 0.78498918 -1.1642462
-18.627859 0.79368985 -1.1948742
-18.578651 0.79380608 -1.1652662
-13.107088 0.79876953 -1.1875341
-8.1960678 0.7920056 -1.1703125
-19.350042 0.80508518 -1.1877888
-18.050961 0.83249474 -1.1896459
-12.436795 0.81265175 -1.1557256
-12.296724 0.8334561 -1.1566589
-8.0938063 0.80012286 -1.191398
-7.7548389 0.83470023 -1.1599663
-0.056305066 0.84688962 -1.1844976
-0.0052392706 0.83862889 -1.1510354
-21.493587 0.88615578 -1.1717684
-21.066538 0.8671295 -1.1882778
-20.654846 0.8676464 -1.1882765
-20.555061 0.8569932 -1.1834097
-17.513908 0.87972057 -1.1905189
-17.24065 0.87732732 -1.1886004
-16.761333 0.89739275 -1.1758001
-13.673719 0.89937419 -1.1712165
-11.868618 0.89334184 -1.1667517
-11.772653 0.89703023 -1.1984385
-8.6649704 0.86507487 -1.1875081
-7.702199 0.85740244 -1.1952078
-7.6748466 0.86308271 -1.1813246
-7.5810833 0.89198613 -1.1833807
12.317186 0.87806195 -1.1741883
12.635479 0.87786204 -1.1924578
12.902564 0.89338958 -1.1768109
21.1394 0.89077592 -1.188959
21.159489 0.8901487 -1.1843128
-16.682518 0.90105951 -1.1845171
-16.468084 0.91184646 -1.1777024
-16.107819 0.92296135 -1.1549324
-16.046185 0.9242025 -1.178086
-14.220556 0.92744839 -1.1786591
-11.627424 0.90376019 -1.1862324
1.1217504 0.90579081 -1.15509
2.063591 0.9491387 -1.1630406
2.3237085 0.94081777 -1.1702826
2.4043324 0.9354313 -1.1785458
2.4751182 0.93022746 -1.1948833
4.8770041 0.94791269 -1.1671681
4.9840631 0.93282592 -1.1516867
5.1398058 0.92033291 -1.1985879
5.5451241 0.90851414 -1.1899233
5.5863776 0.90986812 -1.1916867
5.8181348 0.91385305 -1.186399
5.889267 0.91826254 -1.1731446
13.928353 0.91797262 -1.1871436
21.10144 0.90772724 -1.1640413
-20.946175 0.9645232 -1.1944475
-14.882712 0.98010266 -1.1968776
-10.852287 0.99446768 -1.1637293
-10.75816 0.99998653 -1.1918992
-9.1623774 0.9766382 -1.1780707
-9.0634565 0.95095372 -1.1997581
-1.4758362 0.99360353 -1.1949193
3.1656752 0.95835543 -1.1533411
11.880667 0.96368045 -1.1668134
-10.795107 1.0037105 -1.15477
-10.624238 1.0098379 -1.1885053
-10.519393 1.0212904 -1.1629107
-10.494937 1.0205723 -1.1927515
-10.360305 1.0368171 -1.1915442
-9.066309 1.0012729 -1.1829948
-2.7772717 1.0442734 -1.1704552
-10.272345 1.0532348 -1.1613643
-10.191819 1.0632637 -1.197798
-9.8407145 1.077844 -1.1648763
-9.6792374 1.0549062 -1.159241
-2.9853964 1.0660627 -1.1659586
6.564321 1.0521569 -1.181758
7.1414886 1.0994325 -1.1540418
10.130672 1.083625 -1.1727839
10.246848 1.0699158 -1.1797202
14.389604 1.0581281 -1.1773355
15.286586 1.0931348 -1.1852591
15.898512 1.0650001 -1.1529682
-6.9218841 1.1041508 -1.1539308
9.2180386 1.1468405 -1.1928877
9.4797564 1.1309702 -1.1920178
9.7166653 1.1224101 -1.1774886
9.9319601 1.1118507 -1.1507493
14.667965 1.1226647 -1.1530231
14.852873 1.1407727 -1.1571522
14.937979 1.1403453 -1.1590773
-3.4593422 1.1890677 -1.1820692
-6.6877017 1.2126576 -1.1673754
-3.655998 1.2427031 -1.1948214
-3.6592083 1.2529641 -1.1675793
16.56764 1.284049 -1.1758674
-3.833385 1.3331063 -1.1592145
-6.3708582 1.3975556 -1.1908724
16.952868 1.4408745 -1.174757
17.076759 1.4849612 -1.1647815
-6.1339397 1.5397977 -1.1941808
-4.2447224 1.5375299 -1.1932278
17.346291 1.5518862 -1.1913443
-4.3602896 1.6087844 -1.1970187
17.634195 1.628508 -1.1826024
17.829985 1.7197703 -1.1894195
-4.5797606 1.7762991 -1.1930521
17.967245 1.782872 -1.1738827
18.013439 1.8011278 -1.1898341
-5.6802282 1.8550284 -1.1804883
-5.4659519 1.9967325 -1.1888342
18.484489 1.9870696 -1.1677119
18.743294 2.0928049 -1.1712065
-5.0282006 2.1048663 -1.1788251
19.027758 2.1965756 -1.1500037
19.276665 2.2473564 -1.1884013
-19.691038 0.77404976 -1.1214216
-19.377279 0.7906059 -1.115707
-19.278971 0.7928896 -1.1058798
-19.030779 0.78905523 -1.1383361
-18.681946 0.78255755 -1.1118267
-12.842225 0.78158045 -1.1250679
-12.602029 0.7959733 -1.1184638
-8.0666037 0.79469317 -1.1191199
-18.152872 0.83219099 -1.1127675
-7.9205208 0.81817091 -1.1392046
0.4098075 0.82739079 -1.1372862
-21.45203 0.87772572 -1.1146566
-21.396206 0.87081432 -1.1021683
-20.985937 0.87167275 -1.1102645
-17.776108 0.85146451 -1.1159436
-17.460049 0.88716972 -1.1403589
-17.374876 0.88321131 -1.1360729
-17.276121 0.87992269 -1.137208
-16.873346 0.89734972 -1.1215364
-11.945309 0.88515908 -1.1366223
-8.7567787 0.88221949 -1.1234773
-8.728137 0.87971425 -1.1223373
-8.5959406 0.89714366 -1.1020303
-7.5560083 0.89228201 -1.1448001
-0.19564193 0.85071731 -1.1007187
0.64257473 0.85715657 -1.1199458
0.73150682 0.86868769 -1.1065626
12.287204 0.87961483 -1.148173
12.521008 0.85967624 -1.1025637
12.61241 0.86617172 -1.1164416
12.723504 0.88236547 -1.1118621
-16.389795 0.91510576 -1.1381838
-16.080547 0.92430794 -1.1325169
-15.992708 0.92740536 -1.1110947
-14.304024 0.92575169 -1.1345828
-14.259229 0.9266752 -1.1495644
-14.146617 0.92907631 -1.1340135
-13.781674 0.92583561 -1.1065378
-8.7122402 0.90991676 -1.1036704
-0.87988257 0.92927325 -1.1257348
1.5183995 0.90636075 -1.1160583
1.600728 0.91652 -1.1441486
1.8083149 0.9391228 -1.1449277
1.9243264 0.94258946 -1.1226361
2.6629152 0.92344171 -1.1193469
2.7572308 0.9262197 -1.1241456
2.8879843 0.94088733 -1.1196752
5.3788838 0.91298681 -1.1322675
6.0013089 0.9294526 -1.1482563
-15.652939 0.95450068 -1.1406379
-15.243952 0.97946715 -1.139038
-10.88839 0.98414755 -1.1007684
-9.3696156 0.99491191 -1.1004896
-7.2644229 0.97971648 -1.1194456
-1.8305738 0.99788129 -1.1222757
-1.623883 0.98818958 -1.1390423
2.2072873 0.95170373 -1.1107644
14.191844 0.99609125 -1.1120791
-2.0784798 1.016407 -1.1362584
3.414597 1.0033821 -1.1192884
3.5566931 1.0304856 -1.123435
3.7908547 1.0286688 -1.1204919
4.1818762 1.0256779 -1.1039965
4.2698793 1.0248538 -1.1062183
11.481108 1.0387619 -1.1465867
14.343159 1.0346503 -1.136075
20.885324 1.0362756 -1.1140171
-10.060661 1.0733883 -1.1494815
-9.9597425 1.0779068 -1.124949
-9.6897678 1.0610745 -1.1186743
-2.8094993 1.0607235 -1.1247457
6.6969266 1.0751534 -1.1250067
6.771183 1.079527 -1.1267955
6.9771166 1.0931435 -1.1084247
10.441061 1.062608 -1.1218307
11.285402 1.0618078 -1.1077008
14.397097 1.0543021 -1.1429908
20.841616 1.0822597 -1.147697
-6.9009142 1.1117593 -1.1405123
-6.8253584 1.1434619 -1.1351719
7.5365915 1.1021279 -1.1065712
7.769948 1.1004765 -1.1290562
7.9453325 1.1164539 -1.1496603
9.2958364 1.1498195 -1.1327969
14.785987 1.1310931 -1.1153197
14.982971 1.1285862 -1.1189691
15.119416 1.1095014 -1.1375946
8.5346365 1.1700542 -1.1029871
8.6639566 1.1777329 -1.102417
20.747143 1.1815737 -1.1175765
16.396299 1.2236236 -1.1115153
-3.6810045 1.2716479 -1.142005
16.486958 1.2566438 -1.1147281
-3.773706 1.3225867 -1.1190157
16.707464 1.3449652 -1.1358054
-6.4159341 1.3553574 -1.1102526
-6.2812872 1.4362688 -1.1295451
-3.9774218 1.4051268 -1.1250063
16.892643 1.428174 -1.1200738
20.531498 1.4062316 -1.1136792
17.065525 1.4844422 -1.1447271
-4.2221527 1.5505503 -1.1230924
17.468449 1.5965356 -1.1151723
17.558281 1.6176281 -1.1257198
-5.7054853 1.8335145 -1.1401575
-4.7450037 1.927593 -1.1269484
-5.4341764 1.9999686 -1.1110592
19.825323 1.9913892 -1.1181278
18.5681 2.0313873 -1.13887
18.720764 2.095922 -1.1296144
-5.0415964 2.1237981 -1.129716
19.401487 2.2370567 -1.1451311
-19.912453 0.7514832 -1.087593
-19.23313 0.7919811 -1.091169
-20.584881 0.84652126 -1.0741367
-18.273838 0.82717586 -1.070753
-18.225 0.82501304 -1.0609436
-18.125523 0.83589721 -1.0702413
-13.243029 0.83142495 -1.0508248
-13.050967 0.83361405 -1.0525694
-12.5502 0.80464929 -1.0817497
-8.3433437 0.81410259 -1.060917
-8.1460991 0.81100827 -1.0946503
-7.8366356 0.81877959 -1.0774528
-7.6992693 0.83909857 -1.0941663
0.15095928 0.8212086 -1.0669938
0.57530957 0.84933996 -1.091519
-20.927631 0.87134188 -1.0511236
-20.772057 0.86070263 -1.0770347
-20.671303 0.85612595 -1.0896776
-17.430281 0.88754106 -1.0520334
-16.87532 0.8960036 -1.0796195
-13.426397 0.86205542 -1.084975
-0.50981927 0.88024133 -1.0676541
0.94318938 0.8966648 -1.0580572
12.799135 0.87431002 -1.0686871
12.98 0.87138343 -1.085207
13.156975 0.85344028 -1.0703772
13.947933 0.89555669 -1.0727097
21.18367 0.8806349 -1.0784036
-16.685863 0.90630871 -1.0591882
-16.51684 0.91280746 -1.0798116
-16.326029 0.91893238 -1.0579997
-15.85807 0.93330693 -1.0835104
-14.557429 0.93887663 -1.0694157
-14.549511 0.93720871 -1.0760741
-14.466715 0.92925334 -1.0852816
-14.132549 0.93263662 -1.0833675
-11.222076 0.91089636 -1.0614994
-11.101312 0.94328922 -1.0620078
-8.9201727 0.93435907 -1.067287
-7.4580593 0.91286457 -1.0515486
-7.4167037 0.92947549 -1.0823816
0.4941608 0.90982038 -1.0596566
1.0753868 0.90464944 -1.0580447
1.4082119 0.90154433 -1.0670047
1.8579036 0.93812847 -1.0871327
2.5726991 0.92484844 -1.0828491
3.0372391 0.94725537 -1.0887944
-14.705915 0.9555943 -1.0837306
-7.2032461 0.99812984 -1.0940965
-1.9351521 0.99371827 -1.0816023
-1.530513 0.96453601 -1.0781808
4.9197388 0.95203471 -1.0895863
11.801899 0.97472984 -1.0827713
20.935247 0.99146903 -1.0693309
-10.782825 1.0143731 -1.0587463
-10.354983 1.0484042 -1.050554
-9.4218998 1.0049965 -1.0679178
-9.3648911 1.0136434 -1.0969033
-9.3481836 1.0129321 -1.0985533
-9.2995844 1.0051738 -1.0648247
-2.6281061 1.046393 -1.0948037
-2.2428823 1.0137602 -1.0555415
3.4040589 1.0092205 -1.0616188
3.7507448 1.0335398 -1.0837102
11.560078 1.0316362 -1.0666599
-9.6810074 1.0621884 -1.0801485
-7.0232372 1.0523236 -1.0508648
-2.9420598 1.0700393 -1.0706265
6.8804173 1.0872303 -1.0774715
6.9349451 1.0908267 -1.0780462
14.50177 1.0726 -1.0654222
14.552454 1.0866153 -1.0870744
15.164091 1.0980514 -1.0519402
15.479064 1.0637184 -1.0715294
15.910463 1.06199 -1.0523292
15.997412 1.0767703 -1.0847392
-6.8103857 1.1396351 -1.0536051
7.547204 1.1026152 -1.0869783
7.6692114 1.1019037 -1.0673212
7.7484236 1.1030018 -1.079561
7.9538441 1.1212314 -1.0889362
14.683684 1.1194797 -1.0532334
14.896469 1.137537 -1.0795479
16.107718 1.1106522 -1.0980983
8.7660513 1.1856452 -1.0692406
9.4308767 1.1513114 -1.054117
20.703873 1.2160108 -1.0772756
16.569317 1.2936679 -1.0810966
20.666828 1.2616918 -1.0983968
-6.366436 1.3740069 -1.0565497
16.775354 1.387958 -1.0533998
-4.0011482 1.4388926 -1.0841458
20.446945 1.4845684 -1.0654588
17.012972 1.5246997 -1.0985806
17.081591 1.5042669 -1.0563821
-4.2463188 1.5789639 -1.0747586
17.070713 1.565665 -1.0790843
17.409275 1.5946379 -1.0565964
-6.0254202 1.6077468 -1.0934656
-3.8981647 1.6006258 -1.0605192
-3.9662523 1.6706418 -1.0626484
20.187376 1.7045729 -1.0852956
-5.8048143 1.7520659 -1.0583283
17.927116 1.7799484 -1.0595337
18.171881 1.884405 -1.0840523
-5.5111012 1.9473492 -1.0874577
18.268108 1.9241579 -1.0686991
18.314316 1.9417808 -1.0714188
-4.8534651 2.024972 -1.0837717
-5.3045783 2.0682783 -1.0534153
-5.1354408 2.1134272 -1.0688338
18.767139 2.1303473 -1.0648081
19.352531 2.2412202 -1.0729836
19.454987 2.220046 -1.0585316
-19.8218 0.75600839 -1.0468292
-18.791176 0.76495671 -1.0327301
-18.505453 0.79941112 -1.0165588
-12.683611 0.79573536 -1.0471333
-8.2775822 0.75410318 -1.0367434
-7.9587655 0.7986877 -1.0170386
-18.327471 0.82730699 -1.0331012
-18.268295 0.82541263 -1.044441
-18.152332 0.83710748 -1.0325577
-13.193692 0.8265177 -1.0080998
-12.93596 0.82639045 -1.0217129
-12.413481 0.82530218 -1.014225
-8.1096258 0.81157374 -1.0040995
0.15880114 0.82276595 -1.008068
0.48965716 0.84003282 -1.0278033
13.667479 0.83572018 -1.0109854
-21.233791 0.86780965 -1.0462146
-21.137688 0.86252129 -1.0232041
-17.707106 0.86200643 -1.0104438
-17.044008 0.88133991 -1.0420914
-16.96209 0.88505441 -1.0138892
-16.871681 0.89287686 -1.0335038
-12.180126 0.85002649 -1.0386502
-11.82169 0.88896048 -1.0198395
-11.672946 0.89317966 -1.0296264
-0.77441335 0.89381433 -1.0060441
-0.74849784 0.89799094 -1.0321327
-0.50526124 0.87068772 -1.0347707
0.39344296 0.85191721 -1.0033138
0.51685464 0.86918396 -1.0081663
12.78274 0.86948836 -1.0053644
13.015751 0.86791939 -1.0095496
13.974021 0.89146441 -1.0323452
14.00184 0.89639688 -1.0076944
21.130348 0.88146484 -1.0053468
-16.548429 0.91119432 -1.0478854
-16.456913 0.91391629 -1.0343139
-14.504753 0.94081289 -1.0306975
-13.739742 0.9263227 -1.0090346
-11.267043 0.90627903 -1.0076284
-9.1724014 0.94304168 -1.0151939
-8.9767828 0.94330657 -1.0004938
-8.9276638 0.94303977 -1.0133326
-8.7068768 0.92845917 -1.0016487
-8.6228762 0.94184077 -1.0339566
1.3246943 0.90517682 -1.0419046
1.4509232 0.90320694 -1.0346866
1.628968 0.92655438 -1.0388652
1.8162291 0.9343127 -1.0450366
1.9888182 0.94113851 -1.0101575
2.192081 0.94499767 -1.0009793
2.4074869 0.93173856 -1.0070522
2.4512129 0.93055999 -1.0073992
5.0587735 0.94352394 -1.0330168
5.7584701 0.92458302 -1.038116
12.103297 0.92898107 -1.042496
-10.955938 0.98562741 -1.0160551
-10.924469 0.98993576 -1.0176108
-7.2408733 0.9758842 -1.028229
-2.1281419 0.99993271 -1.0347084
-1.9939302 0.99298865 -1.0074483
3.1691253 0.96901339 -1.0378605
11.754066 0.98991615 -1.0499219
-10.761094 1.0205986 -1.0359071
-10.581325 1.0291101 -1.027575
-10.493463 1.0382203 -1.0212109
-7.1348686 1.0176675 -1.0474187
-2.6661139 1.0481168 -1.0172853
-2.085762 1.0082517 -1.0067852
-2.0023997 1.0099844 -1.0229475
3.7495759 1.0409726 -1.0499562
4.2539015 1.043254 -1.013546
4.5936909 1.001593 -1.0470421
6.2302866 1.0046735 -1.0147454
15.687246 1.0381 -1.0055546
-10.055593 1.0827855 -1.0311455
-9.7863894 1.079682 -1.0480117
-3.036314 1.0790706 -1.0344324
-2.8605013 1.0622672 -1.0086715
10.354253 1.0735714 -1.0422535
11.184902 1.0754071 -1.0286348
14.612657 1.0977315 -1.0380353
15.973494 1.0676556 -1.0374395
-3.2204702 1.1422213 -1.031019
-3.092274 1.1305076 -1.0225011
7.7393713 1.1074569 -1.0121598
7.7707801 1.1089606 -1.0016189
9.6914673 1.1384096 -1.0352857
9.9661226 1.1325929 -1.0172341
14.931067 1.1248062 -1.0112151
15.068131 1.1092186 -1.0026741
-3.3436081 1.1797131 -1.0394257
8.43958 1.1790097 -1.0410496
8.8286495 1.1926994 -1.0329275
9.9752035 1.1874301 -1.0270579
20.750641 1.1664896 -1.0462871
16.633789 1.334558 -1.0024508
16.860821 1.4302859 -1.0221467
-6.1957664 1.476576 -1.013307
-4.085113 1.5165291 -1.0047847
-4.1541142 1.5815514 -1.0270892
17.336479 1.5825121 -1.0307747
20.314863 1.588927 -1.0246615
-5.9940147 1.6239455 -1.0274224
17.863125 1.7567173 -1.0309584
-5.6903095 1.8294296 -1.0480692
17.920607 1.8112433 -1.0203688
-5.4538569 1.9696431 -1.0157992
18.350821 1.9665477 -1.0384794
-4.8583045 2.0458744 -1.0330372
18.497217 2.0283101 -1.0355229
-5.1788521 2.1038167 -1.0422766
-5.1466727 2.110003 -1.049772
18.78319 2.1458383 -1.0223248
19.191599 2.2477386 -1.045561
19.367022 2.237675 -1.0002505
19.217453 2.2567997 -1.013855
-19.886869 0.74962062 -0.9835484
-19.077293 0.77798462 -0.99547493
-18.930849 0.75600082 -0.98572445
-18.865419 0.75620621 -0.95359993
-8.1429749 0.79538393 -0.96520311
-21.188801 0.83556384 -0.96760398
-20.555513 0.82972383 -0.99250251
-20.509163 0.82244337 -0.96910053
-20.480982 0.81890398 -0.97756648
-13.179268 0.82775611 -0.96871972
-12.672144 0.80360234 -0.98178244
-12.628645 0.80980068 -0.96139216
-12.335892 0.83780247 -0.96816623
-8.5392818 0.83304191 -0.98828971
-8.4789915 0.82115132 -0.99836105
-7.8337784 0.80453992 -0.98108476
-7.7256131 0.80959123 -0.9810102
0.22272149 0.8187536 -0.97820574
0.30655226 0.82720488 -0.95237148
0.43674651 0.84780234 -0.95522928
21.309887 0.8405388 -0.99260134
-21.285748 0.8531881 -0.96152294
-21.156189 0.85827219 -0.95631182
-20.80204 0.85885799 -0.98582006
-17.786922 0.85763919 -0.98856634
-17.354519 0.88620746 -0.99865192
-16.708588 0.89802444 -0.97595417
-13.548034 0.89551443 -0.98116958
-13.473363 0.88449264 -0.95343214
-12.941934 0.85659093 -0.99207348
-8.921689 0.89706057 -0.99324942
-8.6937666 0.89092034 -0.96376967
-8.5975885 0.85702783 -0.96579421
-8.5228271 0.85511637 -0.97045732
0.93595672 0.88881588 -0.97157526
-15.807282 0.93576866 -0.99113852
-14.261902 0.94075978 -0.95757586
-14.223682 0.93827403 -0.99010032
-14.17171 0.94255698 -0.95128012
-14.095574 0.94346005 -0.9568193
-13.779348 0.93530661 -0.96937621
-8.9782 0.94734919 -0.97243285
-8.8778887 0.91017115 -0.96622264
-8.7746668 0.90412039 -0.99777007
-7.4296913 0.9109726 -0.96903288
-1.3007588 0.93919933 -0.9883768
-1.13113 0.92809963 -0.98121065
1.2197359 0.90770268 -0.99192846
1.6655481 0.92427105 -0.96602201
1.9812169 0.9412567 -0.97265697
2.5900273 0.93588698 -0.99124992
2.6963468 0.94850105 -0.97363853
5.2711334 0.93067896 -0.99164283
5.436471 0.9296329 -0.97042793
12.073738 0.93461406 -0.9692446
-15.571294 0.95352906 -0.9546476
-15.249734 0.98129243 -0.97633445
-14.714035 0.96691799 -0.96922326
-14.671476 0.9644708 -0.96349621
-14.557585 0.95434207 -0.9709748
-10.95862 0.99008852 -0.96553111
-10.94549 0.992724 -0.97568285
-9.3846922 0.99570215 -0.96475482
-9.1611309 0.97286057 -0.99554741
-7.2977428 0.95356715 -0.98675859
3.2914925 0.99338412 -0.98032057
4.8276381 0.9898448 -0.97287536
5.0208979 0.95207608 -0.99621511
6.0712309 0.96533602 -0.98162782
-9.5992041 1.0388205 -0.98180044
-7.0514798 1.0373937 -0.9578324
-2.4801085 1.0329159 -0.96275055
4.6651011 1.0062245 -0.95027715
6.2466526 1.013216 -0.97577065
14.267741 1.0006707 -0.9790867
14.410144 1.0421478 -0.95244753
15.601773 1.0331223 -0.95802867
15.686592 1.034089 -0.95835876
-10.335619 1.0561194 -0.99301535
-3.1314249 1.094802 -0.97460473
-2.99405 1.0718017 -0.98089957
3.8482094 1.0820006 -0.97147679
3.9302437 1.0572768 -0.97820872
4.14534 1.0553774 -0.99007106
6.4863539 1.0572687 -0.96013296
6.8157773 1.0846282 -0.96976495
10.875641 1.0821154 -0.98676711
14.558834 1.0805264 -0.96689832
14.622692 1.0942312 -0.95804095
15.178915 1.0978739 -0.99596083
-3.1328192 1.1231347 -0.96120912
-3.0699308 1.1417136 -0.9969734
7.5407362 1.1081895 -0.9576146
7.6215801 1.1066217 -0.98246342
7.8779354 1.1219177 -0.96278054
7.9861517 1.1325681 -0.9659723
9.8355341 1.1415904 -0.98001391
-3.3660927 1.1972004 -0.96343231
8.1700869 1.1665866 -0.97370398
8.4953327 1.192031 -0.98396903
8.534296 1.1956942 -0.97097862
9.0137997 1.1964982 -0.99090993
9.5425968 1.1537158 -0.98192883
-6.5455046 1.2534906 -0.97833234
16.636421 1.3380234 -0.98820615
16.735172 1.3851156 -0.96325696
20.551716 1.3768882 -0.99109626
-3.8757672 1.4255635 -0.95793855
20.468388 1.4505876 -0.99593264
-4.0444884 1.5102023 -0.97726119
17.085812 1.5161874 -0.97842222
20.394655 1.5093397 -0.97095001
-6.0847659 1.5535024 -0.96514809
-4.1765246 1.5873846 -0.99392366
-4.0106544 1.6470315 -0.98406506
17.672823 1.6996188 -0.98939914
20.20388 1.6702747 -0.95361686
17.808994 1.7580544 -0.9595831
-5.6796908 1.8288589 -0.99927628
18.030029 1.8373007 -0.9782635
-5.6101336 1.8680288 -0.9534874
-5.5862761 1.8860761 -0.98121381
-5.3389473 2.0331793 -0.97625458
18.395359 2.0096178 -0.95423406
18.484951 2.0420852 -0.97069788
-4.9909649 2.120306 -0.95165092
19.509478 2.166975 -0.97019362
-19.884586 0.74814701 -0.93858922
-20.360304 0.79859352 -0.91029263
-20.305439 0.78981006 -0.94087839
-19.316534 0.78277153 -0.9357968
-18.642557 0.77867103 -0.92494661
-18.514301 0.79969382 -0.92435968
-8.463829 0.79425848 -0.90873837
-8.0972309 0.78958887 -0.92544585
-8.041852 0.7842744 -0.91902703
-20.812454 0.84926474 -0.93473113
-20.629305 0.83737385 -0.93673205
-18.490074 0.80762506 -0.90928698
-13.034041 0.82170099 -0.93085688
-12.577731 0.81911927 -0.91960669
-0.23618877 0.84422177 -0.91071105
-0.1180021 0.84422123 -0.91472071
0.35580263 0.83493567 -0.90373909
0.48222584 0.84772116 -0.91123289
13.221834 0.83999848 -0.94220191
13.32497 0.83972943 -0.90827191
13.58778 0.82314467 -0.90404081
-21.003389 0.85335231 -0.91159594
-17.194607 0.88330209 -0.9304325
-12.235982 0.85200584 -0.93282068
-12.022263 0.87782764 -0.90367424
-7.5306597 0.86681819 -0.90263444
-0.93635839 0.89214355 -0.93199301
0.41546386 0.85197854 -0.92504644
0.86337811 0.87991923 -0.91892481
13.93779 0.86016476 -0.9220252
14.043281 0.89251566 -0.92642635
-15.835663 0.93193811 -0.93763506
-13.512257 0.94880491 -0.93154913
-11.575602 0.90223038 -0.93116784
-11.404996 0.90955126 -0.92476445
-11.178252 0.93968964 -0.91637051
-8.6272087 0.94116318 -0.91867685
-7.4021153 0.91711485 -0.94596291
-1.4516722 0.93319499 -0.91659594
-1.2655506 0.92821729 -0.92522508
1.7299864 0.92745996 -0.93659568
1.8278459 0.93284786 -0.94970894
1.9315827 0.93945652 -0.90261871
2.3092139 0.9380846 -0.92708158
5.7985306 0.94155824 -0.93169868
12.228803 0.90120769 -0.90141046
-15.596278 0.95074993 -0.9091593
-15.298553 0.97519183 -0.90010488
-15.107229 0.98264921 -0.90209341
-15.029642 0.98055172 -0.93375486
-11.063232 0.96427178 -0.93953776
5.8875427 0.95189863 -0.90154684
14.208028 0.97286284 -0.93010736
-9.6314831 1.035972 -0.90351242
-7.1226602 1.0064903 -0.92227173
4.8194847 1.0007124 -0.91107953
6.1931286 1.0018668 -0.94135106
15.589149 1.0287645 -0.93041444
15.644523 1.0268954 -0.93224663
-10.387049 1.056214 -0.94413358
-10.238579 1.0742395 -0.93502343
-9.7908058 1.0645025 -0.90594101
-6.9866037 1.0563548 -0.92732966
4.2684212 1.0565358 -0.93892431
4.3703847 1.0580299 -0.91633463
4.4485025 1.0532591 -0.93204319
6.6227946 1.0798126 -0.92431968
10.72753 1.0608947 -0.91013253
10.963162 1.079924 -0.90509582
11.049417 1.0908111 -0.91598141
15.171614 1.0998948 -0.94844532
-2.9451709 1.1496981 -0.91755801
7.5546398 1.1106374 -0.9008866
9.9960623 1.1433477 -0.94806886
14.947233 1.1204197 -0.91228807
-6.7110834 1.1654954 -0.92070466
-6.695888 1.1733294 -0.93124288
8.0593138 1.1557996 -0.91136503
8.4550991 1.1993058 -0.94809592
9.1484156 1.1965605 -0.92780101
9.4842834 1.1714892 -0.91042399
9.5817232 1.1593121 -0.93261123
8.4200125 1.211868 -0.93231893
8.661067 1.2076793 -0.92971838
9.0429821 1.2057284 -0.91924727
9.0686264 1.203637 -0.92134875
-6.4673233 1.2969234 -0.92770988
-6.3944368 1.3424203 -0.94629377
20.564091 1.3478905 -0.90860689
-6.2969856 1.4008182 -0.93345749
-3.9780614 1.4818819 -0.93479908
-4.0915356 1.5428543 -0.92118055
-6.0392017 1.5813787 -0.90764934
16.98307 1.5629227 -0.92321241
-5.9586902 1.6413583 -0.94027424
-3.9860153 1.6109042 -0.92199165
-3.9461131 1.6353664 -0.93298024
-4.5088482 1.831268 -0.92686909
17.949287 1.8150826 -0.90428317
18.046583 1.8597283 -0.93514067
-4.6796579 1.9482565 -0.94857872
18.196604 1.9269123 -0.93931854
18.246666 1.9579797 -0.91026264
18.299709 1.9748029 -0.93614435
19.786753 1.9828382 -0.94678068
-4.7765808 2.0299931 -0.91804993
18.394245 2.0115554 -0.94599694
-5.2905817 2.0542042 -0.92562759
-5.1720023 2.0911052 -0.91574818
18.590347 2.0962629 -0.93522298
-5.0269227 2.1239667 -0.90736479
-4.9859304 2.1205559 -0.93505126
-19.943567 0.74164522 -0.86264604
-20.319742 0.79027456 -0.89186597
-19.735348 0.75358313 -0.85054767
-19.637566 0.7592743 -0.88374555
-19.177755 0.76861173 -0.86090016
-18.752182 0.76904166 -0.87811828
-7.9824634 0.78176695 -0.88582784
-18.478279 0.81067425 -0.87780821
-13.181204 0.82877231 -0.87946635
-12.540029 0.82691103 -0.89129585
-8.2287579 0.80613697 -0.85103327
-7.6254172 0.8296144 -0.88069791
-0.32107317 0.84743124 -0.87153357
0.006444402 0.83938479 -0.88899636
0.068667933 0.83504766 -0.87156016
0.25742126 0.83153474 -0.85181385
13.030117 0.84846652 -0.89841813
13.175444 0.84666562 -0.8516103
13.396239 0.84002948 -0.88760394
13.528173 0.81888258 -0.87289697
13.602221 0.8231132 -0.89004147
13.918251 0.84865552 -0.85574126
-18.026691 0.85329044 -0.85627735
-17.691406 0.86353248 -0.89288366
-17.195669 0.87811637 -0.88059974
-17.052929 0.87953711 -0.87258542
-17.038254 0.8821274 -0.88693434
-16.730625 0.88820165 -0.85196817
-16.626694 0.89274466 -0.87832886
-8.569376 0.85189998 -0.87636667
-8.50947 0.8760035 -0.87022251
-8.4775114 0.87263227 -0.86094201
-7.5657139 0.85014284 -0.87373686
-0.77851689 0.87626421 -0.87942386
-0.69631416 0.87123591 -0.88119876
-0.42200339 0.85501242 -0.8987326
-0.37598783 0.85193354 -0.89421302
1.0068049 0.88619554 -0.8910647
12.461746 0.85701185 -0.86677039
13.131516 0.85160977 -0.87387663
14.074261 0.89831543 -0.85897309
-16.089954 0.91461366 -0.87752604
-9.3387814 0.94124943 -0.88676023
-9.0835915 0.9402653 -0.87808824
-9.0116901 0.92731488 -0.86949104
-8.8043985 0.92432052 -0.87430716
-8.7971945 0.92399675 -0.89556462
-1.7760909 0.94929004 -0.85890853
-1.5652375 0.92907208 -0.87026942
-1.5378951 0.93002564 -0.88066232
-1.4528359 0.93080753 -0.87051517
1.2356685 0.90106422 -0.85861486
1.4478719 0.91394597 -0.87030327
1.5645545 0.91858947 -0.89827383
5.2687559 0.94498307 -0.89909333
-15.330694 0.97219658 -0.89575803
-15.129171 0.98409975 -0.86627704
-14.881264 0.9808991 -0.86284143
-14.674927 0.97786981 -0.87016797
-14.607565 0.97139096 -0.88740206
-14.357346 0.95265698 -0.88141549
-13.830916 0.95132399 -0.85135406
-9.3934097 0.99524403 -0.89830744
-9.2249365 0.99704939 -0.88493228
-8.8812227 0.97462559 -0.86219758
-1.899828 0.96366793 -0.86110163
6.0351229 0.97246015 -0.88896459
-10.935778 1.0061429 -0.85257971
-9.636385 1.0352665 -0.88920903
-2.523458 1.0352401 -0.89730567
-2.1113048 1.0076625 -0.88655436
3.3877404 1.0347154 -0.85490227
3.4253225 1.0387934 -0.85814655
4.7274556 1.0151067 -0.89076173
4.8002925 1.00772 -0.88802087
5.4782238 1.0149168 -0.89572895
-10.145322 1.0812745 -0.89274949
-10.078799 1.0735765 -0.88689852
-9.7327528 1.0528536 -0.88644165
-2.8011317 1.0503792 -0.8600843
4.082777 1.092952 -0.89003503
6.683692 1.0903026 -0.89570957
6.8624344 1.089512 -0.85388887
10.80216 1.0596534 -0.85727131
10.872494 1.0683882 -0.89330316
10.986803 1.0725273 -0.86978883
11.425808 1.067943 -0.87571955
11.471589 1.0597572 -0.89039695
14.588469 1.081669 -0.88831586
16.031061 1.0781814 -0.89854407
-3.0179603 1.1322966 -0.85680562
7.2056346 1.101725 -0.87835121
9.9367962 1.1434195 -0.89465618
-3.2785289 1.1866421 -0.87854487
8.1424713 1.1774412 -0.87184036
8.380312 1.2101446 -0.89498991
8.4387217 1.2118258 -0.89259607
9.0884333 1.2070832 -0.86406648
16.487204 1.2568884 -0.87164271
16.554678 1.2943293 -0.89108437
-3.6083963 1.3167658 -0.89059299
16.891508 1.4641525 -0.87684947
20.428747 1.4611454 -0.88743079
-4.0818691 1.517188 -0.89822298
20.371071 1.5113972 -0.89001691
-4.1547637 1.5877604 -0.89892954
20.320803 1.5547916 -0.8746013
17.516146 1.6766104 -0.87290752
-4.3377194 1.7225746 -0.87142962
17.58721 1.7056735 -0.85208601
17.846764 1.7852399 -0.89605439
-5.673274 1.8204074 -0.88080013
-4.5739613 1.8957684 -0.88881791
19.927109 1.8700433 -0.8714906
19.8437 1.937551 -0.86875319
18.600113 2.1138415 -0.88884461
18.833105 2.1990912 -0.87085611
19.391869 2.2024693 -0.85152876
-20.317703 0.78986466 -0.80476809
-19.259998 0.76854259 -0.84883219
-18.569279 0.78650022 -0.83958811
-18.538218 0.79350102 -0.80183029
-8.155201 0.77435887 -0.82329607
-7.7943287 0.79365134 -0.84503776
-21.134085 0.83735204 -0.82236719
-21.003105 0.84454077 -0.8381297
-20.426767 0.8031131 -0.81094348
-18.211372 0.82413125 -0.83722401
-17.862179 0.84721214 -0.80009168
-17.809595 0.84253711 -0.81065804
-12.738355 0.82355756 -0.80191416
-7.5762424 0.84108931 -0.83619159
0.32339096 0.8397603 -0.81303537
13.801907 0.82786721 -0.84687424
-17.882307 0.8513788 -0.83487153
-17.47698 0.86381447 -0.8472442
-17.132023 0.87323368 -0.84278333
-16.801031 0.87652862 -0.80517513
-12.026233 0.87896931 -0.80445975
-8.7567005 0.88967574 -0.81993705
-0.4390457 0.85276508 -0.82968217
0.63655472 0.86428481 -0.80173141
12.542482 0.85923445 -0.8109709
12.685619 0.8539046 -0.82184124
